VERSION 0.7
FIELDS x y z intensity returnnumber numberofreturns scandirectionflag edgeofflightline classification synthetic keypoint withheld overlap scananglerank userdata pointsourceid gpstime red green blue
SIZE 4 4 4 8 8 8 8 8 8 8 8 8 8 8 8 8 8 8 8 8
TYPE F F F F F F F F F F F F F F F F F F F F
COUNT 1 1 1 1 1 1 1 1 1 1 1 1 1 1 1 1 1 1 1 1
WIDTH 396
HEIGHT 1
VIEWPOINT 0.0 0.0 0.0 1.0 0.0 0.0 0.0
POINTS 396
DATA ascii
401936.78 5755802.00 -27.36 0.00 1.00 1.00 0.00 0.00 0.00 0.00 0.00 0.00 0.00 0.00 0.00 0.00 0.00 168.00 121.00 133.00 
401937.97 5755803.00 -26.53 0.00 1.00 1.00 0.00 0.00 0.00 0.00 0.00 0.00 0.00 0.00 0.00 0.00 0.00 177.00 126.00 138.00 
401938.88 5755803.00 -26.50 0.00 1.00 1.00 0.00 0.00 0.00 0.00 0.00 0.00 0.00 0.00 0.00 0.00 0.00 181.00 133.00 137.00 
401939.84 5755804.00 -26.51 0.00 1.00 1.00 0.00 0.00 0.00 0.00 0.00 0.00 0.00 0.00 0.00 0.00 0.00 186.00 137.00 138.00 
401941.03 5755805.00 -25.54 0.00 1.00 1.00 0.00 0.00 0.00 0.00 0.00 0.00 0.00 0.00 0.00 0.00 0.00 177.00 122.00 139.00 
401909.69 5755783.50 -36.79 0.00 1.00 1.00 0.00 0.00 0.00 0.00 0.00 0.00 0.00 0.00 0.00 0.00 0.00 174.00 125.00 135.00 
401911.50 5755784.50 -35.66 0.00 1.00 1.00 0.00 0.00 0.00 0.00 0.00 0.00 0.00 0.00 0.00 0.00 0.00 173.00 121.00 146.00 
401912.84 5755784.50 -34.98 0.00 1.00 1.00 0.00 0.00 0.00 0.00 0.00 0.00 0.00 0.00 0.00 0.00 0.00 178.00 129.00 148.00 
401913.84 5755785.50 -34.38 0.00 1.00 1.00 0.00 0.00 0.00 0.00 0.00 0.00 0.00 0.00 0.00 0.00 0.00 182.00 133.00 152.00 
401916.66 5755787.50 -33.80 0.00 1.00 1.00 0.00 0.00 0.00 0.00 0.00 0.00 0.00 0.00 0.00 0.00 0.00 185.00 135.00 154.00 
401919.53 5755789.50 -33.03 0.00 1.00 1.00 0.00 0.00 0.00 0.00 0.00 0.00 0.00 0.00 0.00 0.00 0.00 173.00 119.00 151.00 
401920.59 5755790.50 -32.27 0.00 1.00 1.00 0.00 0.00 0.00 0.00 0.00 0.00 0.00 0.00 0.00 0.00 0.00 162.00 114.00 135.00 
401922.38 5755791.50 -32.09 0.00 1.00 1.00 0.00 0.00 0.00 0.00 0.00 0.00 0.00 0.00 0.00 0.00 0.00 183.00 129.00 158.00 
401923.41 5755792.50 -32.01 0.00 1.00 1.00 0.00 0.00 0.00 0.00 0.00 0.00 0.00 0.00 0.00 0.00 0.00 176.00 128.00 145.00 
401923.38 5755792.50 -31.37 0.00 1.00 1.00 0.00 0.00 0.00 0.00 0.00 0.00 0.00 0.00 0.00 0.00 0.00 169.00 119.00 143.00 
401925.34 5755793.50 -31.37 0.00 1.00 1.00 0.00 0.00 0.00 0.00 0.00 0.00 0.00 0.00 0.00 0.00 0.00 172.00 112.00 106.00 
401927.25 5755795.00 -30.47 0.00 1.00 1.00 0.00 0.00 0.00 0.00 0.00 0.00 0.00 0.00 0.00 0.00 0.00 186.00 129.00 146.00 
401927.22 5755796.00 -30.46 0.00 1.00 1.00 0.00 0.00 0.00 0.00 0.00 0.00 0.00 0.00 0.00 0.00 0.00 193.00 132.00 129.00 
401929.19 5755796.00 -30.25 0.00 1.00 1.00 0.00 0.00 0.00 0.00 0.00 0.00 0.00 0.00 0.00 0.00 0.00 191.00 130.00 134.00 
401930.22 5755797.00 -29.26 0.00 1.00 1.00 0.00 0.00 0.00 0.00 0.00 0.00 0.00 0.00 0.00 0.00 0.00 176.00 125.00 134.00 
401932.06 5755798.00 -29.32 0.00 1.00 1.00 0.00 0.00 0.00 0.00 0.00 0.00 0.00 0.00 0.00 0.00 0.00 199.00 140.00 167.00 
401935.91 5755801.00 -27.36 0.00 1.00 1.00 0.00 0.00 0.00 0.00 0.00 0.00 0.00 0.00 0.00 0.00 0.00 180.00 135.00 142.00 
401937.75 5755802.00 -27.23 0.00 1.00 1.00 0.00 0.00 0.00 0.00 0.00 0.00 0.00 0.00 0.00 0.00 0.00 174.00 127.00 137.00 
401941.69 5755805.00 -25.50 0.00 1.00 1.00 0.00 0.00 0.00 0.00 0.00 0.00 0.00 0.00 0.00 0.00 0.00 186.00 129.00 154.00 
401942.47 5755806.00 -25.43 0.00 1.00 1.00 0.00 0.00 0.00 0.00 0.00 0.00 0.00 0.00 0.00 0.00 0.00 184.00 131.00 146.00 
401908.91 5755782.00 -36.65 0.00 1.00 1.00 0.00 0.00 0.00 0.00 0.00 0.00 0.00 0.00 0.00 0.00 0.00 183.00 130.00 145.00 
401909.91 5755783.00 -36.65 0.00 1.00 1.00 0.00 0.00 0.00 0.00 0.00 0.00 0.00 0.00 0.00 0.00 0.00 180.00 126.00 137.00 
401911.72 5755783.50 -35.69 0.00 1.00 1.00 0.00 0.00 0.00 0.00 0.00 0.00 0.00 0.00 0.00 0.00 0.00 171.00 119.00 145.00 
401915.69 5755786.50 -34.19 0.00 1.00 1.00 0.00 0.00 0.00 0.00 0.00 0.00 0.00 0.00 0.00 0.00 0.00 179.00 128.00 151.00 
401916.84 5755787.50 -33.35 0.00 1.00 1.00 0.00 0.00 0.00 0.00 0.00 0.00 0.00 0.00 0.00 0.00 0.00 184.00 135.00 148.00 
401918.62 5755788.50 -33.10 0.00 1.00 1.00 0.00 0.00 0.00 0.00 0.00 0.00 0.00 0.00 0.00 0.00 0.00 166.00 118.00 140.00 
401921.53 5755790.50 -32.26 0.00 1.00 1.00 0.00 0.00 0.00 0.00 0.00 0.00 0.00 0.00 0.00 0.00 0.00 168.00 118.00 143.00 
401924.41 5755792.50 -31.31 0.00 1.00 1.00 0.00 0.00 0.00 0.00 0.00 0.00 0.00 0.00 0.00 0.00 0.00 168.00 119.00 140.00 
401925.31 5755793.00 -32.05 0.00 1.00 1.00 0.00 0.00 0.00 0.00 0.00 0.00 0.00 0.00 0.00 0.00 0.00 179.00 119.00 108.00 
401928.31 5755795.50 -30.34 0.00 1.00 1.00 0.00 0.00 0.00 0.00 0.00 0.00 0.00 0.00 0.00 0.00 0.00 150.00 91.00 110.00 
401931.09 5755797.00 -29.26 0.00 1.00 1.00 0.00 0.00 0.00 0.00 0.00 0.00 0.00 0.00 0.00 0.00 0.00 184.00 130.00 152.00 
401933.88 5755799.00 -29.14 0.00 1.00 1.00 0.00 0.00 0.00 0.00 0.00 0.00 0.00 0.00 0.00 0.00 0.00 188.00 137.00 135.00 
401935.03 5755800.00 -28.21 0.00 1.00 1.00 0.00 0.00 0.00 0.00 0.00 0.00 0.00 0.00 0.00 0.00 0.00 188.00 136.00 155.00 
401935.00 5755800.00 -27.44 0.00 1.00 1.00 0.00 0.00 0.00 0.00 0.00 0.00 0.00 0.00 0.00 0.00 0.00 176.00 125.00 144.00 
401936.97 5755801.00 -27.31 0.00 1.00 1.00 0.00 0.00 0.00 0.00 0.00 0.00 0.00 0.00 0.00 0.00 0.00 184.00 134.00 148.00 
401910.91 5755783.00 -36.08 0.00 1.00 1.00 0.00 0.00 0.00 0.00 0.00 0.00 0.00 0.00 0.00 0.00 0.00 171.00 125.00 136.00 
401914.84 5755785.50 -34.11 0.00 1.00 1.00 0.00 0.00 0.00 0.00 0.00 0.00 0.00 0.00 0.00 0.00 0.00 178.00 128.00 148.00 
401916.69 5755786.50 -33.86 0.00 1.00 1.00 0.00 0.00 0.00 0.00 0.00 0.00 0.00 0.00 0.00 0.00 0.00 182.00 132.00 152.00 
401917.66 5755787.50 -33.09 0.00 1.00 1.00 0.00 0.00 0.00 0.00 0.00 0.00 0.00 0.00 0.00 0.00 0.00 182.00 132.00 147.00 
401920.50 5755789.50 -32.91 0.00 1.00 1.00 0.00 0.00 0.00 0.00 0.00 0.00 0.00 0.00 0.00 0.00 0.00 173.00 126.00 144.00 
401923.22 5755791.50 -32.07 0.00 1.00 1.00 0.00 0.00 0.00 0.00 0.00 0.00 0.00 0.00 0.00 0.00 0.00 179.00 131.00 148.00 
401927.12 5755794.50 -30.97 0.00 1.00 1.00 0.00 0.00 0.00 0.00 0.00 0.00 0.00 0.00 0.00 0.00 0.00 183.00 128.00 150.00 
401927.84 5755795.00 -31.05 0.00 1.00 1.00 0.00 0.00 0.00 0.00 0.00 0.00 0.00 0.00 0.00 0.00 0.00 165.00 107.00 115.00 
401930.19 5755796.00 -30.15 0.00 1.00 1.00 0.00 0.00 0.00 0.00 0.00 0.00 0.00 0.00 0.00 0.00 0.00 176.00 117.00 131.00 
401932.97 5755798.00 -29.13 0.00 1.00 1.00 0.00 0.00 0.00 0.00 0.00 0.00 0.00 0.00 0.00 0.00 0.00 176.00 123.00 139.00 
401933.88 5755799.00 -28.43 0.00 1.00 1.00 0.00 0.00 0.00 0.00 0.00 0.00 0.00 0.00 0.00 0.00 0.00 183.00 131.00 136.00 
401935.88 5755800.00 -27.44 0.00 1.00 1.00 0.00 0.00 0.00 0.00 0.00 0.00 0.00 0.00 0.00 0.00 0.00 188.00 135.00 156.00 
401937.94 5755802.00 -26.60 0.00 1.00 1.00 0.00 0.00 0.00 0.00 0.00 0.00 0.00 0.00 0.00 0.00 0.00 185.00 131.00 154.00 
401939.72 5755803.00 -26.49 0.00 1.00 1.00 0.00 0.00 0.00 0.00 0.00 0.00 0.00 0.00 0.00 0.00 0.00 190.00 137.00 148.00 
401940.66 5755804.00 -26.46 0.00 1.00 1.00 0.00 0.00 0.00 0.00 0.00 0.00 0.00 0.00 0.00 0.00 0.00 200.00 144.00 156.00 
401942.59 5755805.00 -25.52 0.00 1.00 1.00 0.00 0.00 0.00 0.00 0.00 0.00 0.00 0.00 0.00 0.00 0.00 164.00 114.00 132.00 
401909.94 5755782.00 -36.73 0.00 1.00 1.00 0.00 0.00 0.00 0.00 0.00 0.00 0.00 0.00 0.00 0.00 0.00 162.00 117.00 123.00 
401909.94 5755782.50 -36.14 0.00 1.00 1.00 0.00 0.00 0.00 0.00 0.00 0.00 0.00 0.00 0.00 0.00 0.00 162.00 112.00 115.00 
401912.06 5755783.50 -35.23 0.00 1.00 1.00 0.00 0.00 0.00 0.00 0.00 0.00 0.00 0.00 0.00 0.00 0.00 169.00 122.00 138.00 
401912.75 5755784.00 -35.04 0.00 1.00 1.00 0.00 0.00 0.00 0.00 0.00 0.00 0.00 0.00 0.00 0.00 0.00 178.00 126.00 150.00 
401913.91 5755785.00 -34.79 0.00 1.00 1.00 0.00 0.00 0.00 0.00 0.00 0.00 0.00 0.00 0.00 0.00 0.00 176.00 124.00 149.00 
401915.72 5755785.50 -34.18 0.00 1.00 1.00 0.00 0.00 0.00 0.00 0.00 0.00 0.00 0.00 0.00 0.00 0.00 169.00 118.00 143.00 
401919.56 5755788.50 -33.13 0.00 1.00 1.00 0.00 0.00 0.00 0.00 0.00 0.00 0.00 0.00 0.00 0.00 0.00 180.00 127.00 156.00 
401920.69 5755789.50 -32.32 0.00 1.00 1.00 0.00 0.00 0.00 0.00 0.00 0.00 0.00 0.00 0.00 0.00 0.00 168.00 119.00 142.00 
401922.41 5755790.50 -32.20 0.00 1.00 1.00 0.00 0.00 0.00 0.00 0.00 0.00 0.00 0.00 0.00 0.00 0.00 185.00 131.00 160.00 
401923.56 5755791.50 -31.33 0.00 1.00 1.00 0.00 0.00 0.00 0.00 0.00 0.00 0.00 0.00 0.00 0.00 0.00 185.00 134.00 156.00 
401926.41 5755793.00 -31.29 0.00 1.00 1.00 0.00 0.00 0.00 0.00 0.00 0.00 0.00 0.00 0.00 0.00 0.00 196.00 136.00 110.00 
401927.25 5755794.00 -30.30 0.00 1.00 1.00 0.00 0.00 0.00 0.00 0.00 0.00 0.00 0.00 0.00 0.00 0.00 167.00 115.00 137.00 
401928.12 5755794.50 -30.27 0.00 1.00 1.00 0.00 0.00 0.00 0.00 0.00 0.00 0.00 0.00 0.00 0.00 0.00 188.00 135.00 151.00 
401929.09 5755795.00 -30.37 0.00 1.00 1.00 0.00 0.00 0.00 0.00 0.00 0.00 0.00 0.00 0.00 0.00 0.00 184.00 126.00 142.00 
401930.28 5755796.00 -29.34 0.00 1.00 1.00 0.00 0.00 0.00 0.00 0.00 0.00 0.00 0.00 0.00 0.00 0.00 190.00 132.00 131.00 
401932.22 5755797.00 -29.33 0.00 1.00 1.00 0.00 0.00 0.00 0.00 0.00 0.00 0.00 0.00 0.00 0.00 0.00 191.00 141.00 152.00 
401934.88 5755799.00 -28.26 0.00 1.00 1.00 0.00 0.00 0.00 0.00 0.00 0.00 0.00 0.00 0.00 0.00 0.00 189.00 138.00 148.00 
401937.78 5755801.00 -27.15 0.00 1.00 1.00 0.00 0.00 0.00 0.00 0.00 0.00 0.00 0.00 0.00 0.00 0.00 173.00 124.00 137.00 
401938.84 5755802.00 -26.45 0.00 1.00 1.00 0.00 0.00 0.00 0.00 0.00 0.00 0.00 0.00 0.00 0.00 0.00 199.00 144.00 158.00 
401941.69 5755804.00 -25.52 0.00 1.00 1.00 0.00 0.00 0.00 0.00 0.00 0.00 0.00 0.00 0.00 0.00 0.00 186.00 126.00 150.00 
401943.38 5755805.50 -25.36 0.00 1.00 1.00 0.00 0.00 0.00 0.00 0.00 0.00 0.00 0.00 0.00 0.00 0.00 179.00 122.00 151.00 
401911.75 5755783.00 -35.96 0.00 1.00 1.00 0.00 0.00 0.00 0.00 0.00 0.00 0.00 0.00 0.00 0.00 0.00 157.00 109.00 126.00 
401914.12 5755785.00 -34.11 0.00 1.00 1.00 0.00 0.00 0.00 0.00 0.00 0.00 0.00 0.00 0.00 0.00 0.00 178.00 131.00 145.00 
401914.91 5755784.50 -34.18 0.00 1.00 1.00 0.00 0.00 0.00 0.00 0.00 0.00 0.00 0.00 0.00 0.00 0.00 172.00 126.00 142.00 
401918.62 5755787.50 -33.19 0.00 1.00 1.00 0.00 0.00 0.00 0.00 0.00 0.00 0.00 0.00 0.00 0.00 0.00 180.00 128.00 155.00 
401921.47 5755789.50 -32.16 0.00 1.00 1.00 0.00 0.00 0.00 0.00 0.00 0.00 0.00 0.00 0.00 0.00 0.00 178.00 129.00 150.00 
401924.34 5755791.50 -31.18 0.00 1.00 1.00 0.00 0.00 0.00 0.00 0.00 0.00 0.00 0.00 0.00 0.00 0.00 169.00 120.00 143.00 
401925.34 5755792.50 -31.38 0.00 1.00 1.00 0.00 0.00 0.00 0.00 0.00 0.00 0.00 0.00 0.00 0.00 0.00 189.00 131.00 123.00 
401925.31 5755792.00 -32.16 0.00 1.00 1.00 0.00 0.00 0.00 0.00 0.00 0.00 0.00 0.00 0.00 0.00 0.00 176.00 118.00 118.00 
401926.03 5755793.00 -31.95 0.00 1.00 1.00 0.00 0.00 0.00 0.00 0.00 0.00 0.00 0.00 0.00 0.00 0.00 193.00 136.00 104.00 
401927.19 5755793.50 -31.25 0.00 1.00 1.00 0.00 0.00 0.00 0.00 0.00 0.00 0.00 0.00 0.00 0.00 0.00 166.00 112.00 131.00 
401931.16 5755796.00 -29.28 0.00 1.00 1.00 0.00 0.00 0.00 0.00 0.00 0.00 0.00 0.00 0.00 0.00 0.00 172.00 123.00 140.00 
401933.00 5755798.00 -28.51 0.00 1.00 1.00 0.00 0.00 0.00 0.00 0.00 0.00 0.00 0.00 0.00 0.00 0.00 161.00 111.00 128.00 
401933.91 5755798.00 -28.37 0.00 1.00 1.00 0.00 0.00 0.00 0.00 0.00 0.00 0.00 0.00 0.00 0.00 0.00 182.00 131.00 146.00 
401937.94 5755801.00 -26.51 0.00 1.00 1.00 0.00 0.00 0.00 0.00 0.00 0.00 0.00 0.00 0.00 0.00 0.00 190.00 135.00 160.00 
401939.84 5755803.00 -25.92 0.00 1.00 1.00 0.00 0.00 0.00 0.00 0.00 0.00 0.00 0.00 0.00 0.00 0.00 188.00 134.00 155.00 
401940.69 5755803.00 -26.45 0.00 1.00 1.00 0.00 0.00 0.00 0.00 0.00 0.00 0.00 0.00 0.00 0.00 0.00 180.00 128.00 142.00 
401943.59 5755805.00 -25.43 0.00 1.00 1.00 0.00 0.00 0.00 0.00 0.00 0.00 0.00 0.00 0.00 0.00 0.00 176.00 122.00 148.00 
401910.00 5755782.00 -36.08 0.00 1.00 1.00 0.00 0.00 0.00 0.00 0.00 0.00 0.00 0.00 0.00 0.00 0.00 180.00 134.00 139.00 
401910.66 5755781.50 -36.67 0.00 1.00 1.00 0.00 0.00 0.00 0.00 0.00 0.00 0.00 0.00 0.00 0.00 0.00 170.00 113.00 116.00 
401910.91 5755781.50 -36.31 0.00 1.00 1.00 0.00 0.00 0.00 0.00 0.00 0.00 0.00 0.00 0.00 0.00 0.00 153.00 99.00 110.00 
401913.66 5755783.50 -34.87 0.00 1.00 1.00 0.00 0.00 0.00 0.00 0.00 0.00 0.00 0.00 0.00 0.00 0.00 179.00 130.00 149.00 
401917.56 5755786.50 -33.24 0.00 1.00 1.00 0.00 0.00 0.00 0.00 0.00 0.00 0.00 0.00 0.00 0.00 0.00 181.00 129.00 152.00 
401920.44 5755788.50 -33.16 0.00 1.00 1.00 0.00 0.00 0.00 0.00 0.00 0.00 0.00 0.00 0.00 0.00 0.00 176.00 128.00 147.00 
401923.38 5755790.50 -32.01 0.00 1.00 1.00 0.00 0.00 0.00 0.00 0.00 0.00 0.00 0.00 0.00 0.00 0.00 177.00 132.00 143.00 
401926.22 5755792.50 -32.07 0.00 1.00 1.00 0.00 0.00 0.00 0.00 0.00 0.00 0.00 0.00 0.00 0.00 0.00 192.00 132.00 117.00 
401926.31 5755792.50 -31.24 0.00 1.00 1.00 0.00 0.00 0.00 0.00 0.00 0.00 0.00 0.00 0.00 0.00 0.00 175.00 114.00 106.00 
401930.09 5755795.00 -30.28 0.00 1.00 1.00 0.00 0.00 0.00 0.00 0.00 0.00 0.00 0.00 0.00 0.00 0.00 198.00 140.00 131.00 
401933.03 5755797.00 -29.08 0.00 1.00 1.00 0.00 0.00 0.00 0.00 0.00 0.00 0.00 0.00 0.00 0.00 0.00 189.00 138.00 147.00 
401935.16 5755799.50 -27.61 0.00 1.00 1.00 0.00 0.00 0.00 0.00 0.00 0.00 0.00 0.00 0.00 0.00 0.00 180.00 128.00 148.00 
401935.94 5755799.00 -27.46 0.00 1.00 1.00 0.00 0.00 0.00 0.00 0.00 0.00 0.00 0.00 0.00 0.00 0.00 176.00 123.00 145.00 
401936.84 5755800.00 -27.36 0.00 1.00 1.00 0.00 0.00 0.00 0.00 0.00 0.00 0.00 0.00 0.00 0.00 0.00 172.00 123.00 140.00 
401938.84 5755801.00 -26.49 0.00 1.00 1.00 0.00 0.00 0.00 0.00 0.00 0.00 0.00 0.00 0.00 0.00 0.00 198.00 144.00 162.00 
401939.78 5755802.00 -26.40 0.00 1.00 1.00 0.00 0.00 0.00 0.00 0.00 0.00 0.00 0.00 0.00 0.00 0.00 186.00 135.00 147.00 
401940.69 5755803.00 -25.81 0.00 1.00 1.00 0.00 0.00 0.00 0.00 0.00 0.00 0.00 0.00 0.00 0.00 0.00 181.00 131.00 143.00 
401942.59 5755804.00 -25.43 0.00 1.00 1.00 0.00 0.00 0.00 0.00 0.00 0.00 0.00 0.00 0.00 0.00 0.00 182.00 129.00 148.00 
401909.81 5755780.50 -36.67 0.00 1.00 1.00 0.00 0.00 0.00 0.00 0.00 0.00 0.00 0.00 0.00 0.00 0.00 175.00 125.00 135.00 
401910.03 5755781.00 -36.10 0.00 1.00 1.00 0.00 0.00 0.00 0.00 0.00 0.00 0.00 0.00 0.00 0.00 0.00 172.00 121.00 130.00 
401911.91 5755781.50 -35.92 0.00 1.00 1.00 0.00 0.00 0.00 0.00 0.00 0.00 0.00 0.00 0.00 0.00 0.00 176.00 126.00 132.00 
401912.81 5755782.50 -35.09 0.00 1.00 1.00 0.00 0.00 0.00 0.00 0.00 0.00 0.00 0.00 0.00 0.00 0.00 164.00 115.00 133.00 
401914.88 5755784.50 -34.64 0.00 1.00 1.00 0.00 0.00 0.00 0.00 0.00 0.00 0.00 0.00 0.00 0.00 0.00 172.00 123.00 144.00 
401916.56 5755786.00 -33.92 0.00 1.00 1.00 0.00 0.00 0.00 0.00 0.00 0.00 0.00 0.00 0.00 0.00 0.00 172.00 123.00 145.00 
401916.88 5755786.50 -33.46 0.00 1.00 1.00 0.00 0.00 0.00 0.00 0.00 0.00 0.00 0.00 0.00 0.00 0.00 179.00 131.00 145.00 
401917.41 5755786.50 -33.68 0.00 1.00 1.00 0.00 0.00 0.00 0.00 0.00 0.00 0.00 0.00 0.00 0.00 0.00 170.00 119.00 142.00 
401918.62 5755786.50 -33.21 0.00 1.00 1.00 0.00 0.00 0.00 0.00 0.00 0.00 0.00 0.00 0.00 0.00 0.00 184.00 132.00 155.00 
401919.56 5755787.50 -33.15 0.00 1.00 1.00 0.00 0.00 0.00 0.00 0.00 0.00 0.00 0.00 0.00 0.00 0.00 182.00 129.00 159.00 
401922.47 5755789.50 -32.23 0.00 1.00 1.00 0.00 0.00 0.00 0.00 0.00 0.00 0.00 0.00 0.00 0.00 0.00 178.00 130.00 144.00 
401924.38 5755791.00 -31.87 0.00 1.00 1.00 0.00 0.00 0.00 0.00 0.00 0.00 0.00 0.00 0.00 0.00 0.00 177.00 132.00 143.00 
401925.34 5755791.50 -31.33 0.00 1.00 1.00 0.00 0.00 0.00 0.00 0.00 0.00 0.00 0.00 0.00 0.00 0.00 168.00 115.00 139.00 
401927.44 5755793.50 -30.30 0.00 1.00 1.00 0.00 0.00 0.00 0.00 0.00 0.00 0.00 0.00 0.00 0.00 0.00 172.00 117.00 139.00 
401928.16 5755793.00 -30.30 0.00 1.00 1.00 0.00 0.00 0.00 0.00 0.00 0.00 0.00 0.00 0.00 0.00 0.00 183.00 132.00 148.00 
401929.12 5755794.00 -30.23 0.00 1.00 1.00 0.00 0.00 0.00 0.00 0.00 0.00 0.00 0.00 0.00 0.00 0.00 174.00 117.00 137.00 
401931.97 5755796.00 -29.20 0.00 1.00 1.00 0.00 0.00 0.00 0.00 0.00 0.00 0.00 0.00 0.00 0.00 0.00 180.00 135.00 143.00 
401933.06 5755797.00 -28.32 0.00 1.00 1.00 0.00 0.00 0.00 0.00 0.00 0.00 0.00 0.00 0.00 0.00 0.00 186.00 134.00 148.00 
401934.97 5755798.00 -28.34 0.00 1.00 1.00 0.00 0.00 0.00 0.00 0.00 0.00 0.00 0.00 0.00 0.00 0.00 172.00 117.00 138.00 
401937.62 5755800.00 -27.33 0.00 1.00 1.00 0.00 0.00 0.00 0.00 0.00 0.00 0.00 0.00 0.00 0.00 0.00 192.00 138.00 163.00 
401939.97 5755801.50 -25.87 0.00 1.00 1.00 0.00 0.00 0.00 0.00 0.00 0.00 0.00 0.00 0.00 0.00 0.00 192.00 138.00 158.00 
401941.59 5755803.00 -26.40 0.00 1.00 1.00 0.00 0.00 0.00 0.00 0.00 0.00 0.00 0.00 0.00 0.00 0.00 182.00 126.00 139.00 
401941.62 5755803.00 -25.66 0.00 1.00 1.00 0.00 0.00 0.00 0.00 0.00 0.00 0.00 0.00 0.00 0.00 0.00 170.00 118.00 129.00 
401910.78 5755781.00 -36.56 0.00 1.00 1.00 0.00 0.00 0.00 0.00 0.00 0.00 0.00 0.00 0.00 0.00 0.00 166.00 116.00 118.00 
401914.44 5755783.50 -34.63 0.00 1.00 1.00 0.00 0.00 0.00 0.00 0.00 0.00 0.00 0.00 0.00 0.00 0.00 181.00 135.00 149.00 
401915.75 5755784.50 -34.07 0.00 1.00 1.00 0.00 0.00 0.00 0.00 0.00 0.00 0.00 0.00 0.00 0.00 0.00 162.00 112.00 140.00 
401916.91 5755785.50 -33.49 0.00 1.00 1.00 0.00 0.00 0.00 0.00 0.00 0.00 0.00 0.00 0.00 0.00 0.00 176.00 129.00 143.00 
401917.78 5755785.50 -33.24 0.00 1.00 1.00 0.00 0.00 0.00 0.00 0.00 0.00 0.00 0.00 0.00 0.00 0.00 180.00 128.00 151.00 
401921.44 5755788.50 -32.88 0.00 1.00 1.00 0.00 0.00 0.00 0.00 0.00 0.00 0.00 0.00 0.00 0.00 0.00 158.00 110.00 131.00 
401923.47 5755789.50 -32.09 0.00 1.00 1.00 0.00 0.00 0.00 0.00 0.00 0.00 0.00 0.00 0.00 0.00 0.00 174.00 126.00 143.00 
401924.38 5755790.50 -31.88 0.00 1.00 1.00 0.00 0.00 0.00 0.00 0.00 0.00 0.00 0.00 0.00 0.00 0.00 178.00 126.00 152.00 
401930.09 5755794.00 -30.14 0.00 1.00 1.00 0.00 0.00 0.00 0.00 0.00 0.00 0.00 0.00 0.00 0.00 0.00 183.00 127.00 146.00 
401931.19 5755795.50 -29.40 0.00 1.00 1.00 0.00 0.00 0.00 0.00 0.00 0.00 0.00 0.00 0.00 0.00 0.00 156.00 103.00 111.00 
401933.94 5755797.00 -28.39 0.00 1.00 1.00 0.00 0.00 0.00 0.00 0.00 0.00 0.00 0.00 0.00 0.00 0.00 165.00 112.00 136.00 
401936.91 5755799.00 -27.35 0.00 1.00 1.00 0.00 0.00 0.00 0.00 0.00 0.00 0.00 0.00 0.00 0.00 0.00 187.00 132.00 161.00 
401937.84 5755800.00 -26.58 0.00 1.00 1.00 0.00 0.00 0.00 0.00 0.00 0.00 0.00 0.00 0.00 0.00 0.00 195.00 141.00 164.00 
401940.66 5755802.00 -25.83 0.00 1.00 1.00 0.00 0.00 0.00 0.00 0.00 0.00 0.00 0.00 0.00 0.00 0.00 186.00 130.00 155.00 
401943.59 5755804.00 -25.21 0.00 1.00 1.00 0.00 0.00 0.00 0.00 0.00 0.00 0.00 0.00 0.00 0.00 0.00 175.00 121.00 140.00 
401910.94 5755781.00 -36.11 0.00 1.00 1.00 0.00 0.00 0.00 0.00 0.00 0.00 0.00 0.00 0.00 0.00 0.00 153.00 109.00 117.00 
401913.84 5755782.50 -34.76 0.00 1.00 1.00 0.00 0.00 0.00 0.00 0.00 0.00 0.00 0.00 0.00 0.00 0.00 178.00 130.00 148.00 
401914.81 5755784.00 -34.21 0.00 1.00 1.00 0.00 0.00 0.00 0.00 0.00 0.00 0.00 0.00 0.00 0.00 0.00 177.00 131.00 141.00 
401916.62 5755785.00 -33.87 0.00 1.00 1.00 0.00 0.00 0.00 0.00 0.00 0.00 0.00 0.00 0.00 0.00 0.00 175.00 126.00 147.00 
401919.59 5755786.50 -33.05 0.00 1.00 1.00 0.00 0.00 0.00 0.00 0.00 0.00 0.00 0.00 0.00 0.00 0.00 184.00 131.00 156.00 
401920.56 5755787.50 -33.04 0.00 1.00 1.00 0.00 0.00 0.00 0.00 0.00 0.00 0.00 0.00 0.00 0.00 0.00 174.00 126.00 148.00 
401921.50 5755788.50 -32.17 0.00 1.00 1.00 0.00 0.00 0.00 0.00 0.00 0.00 0.00 0.00 0.00 0.00 0.00 171.00 121.00 142.00 
401924.34 5755790.50 -31.11 0.00 1.00 1.00 0.00 0.00 0.00 0.00 0.00 0.00 0.00 0.00 0.00 0.00 0.00 167.00 119.00 140.00 
401926.28 5755791.50 -31.23 0.00 1.00 1.00 0.00 0.00 0.00 0.00 0.00 0.00 0.00 0.00 0.00 0.00 0.00 162.00 102.00 105.00 
401927.19 5755792.50 -31.14 0.00 1.00 1.00 0.00 0.00 0.00 0.00 0.00 0.00 0.00 0.00 0.00 0.00 0.00 165.00 111.00 115.00 
401929.16 5755793.00 -30.27 0.00 1.00 1.00 0.00 0.00 0.00 0.00 0.00 0.00 0.00 0.00 0.00 0.00 0.00 182.00 130.00 150.00 
401931.22 5755795.50 -30.05 0.00 1.00 1.00 0.00 0.00 0.00 0.00 0.00 0.00 0.00 0.00 0.00 0.00 0.00 168.00 116.00 132.00 
401933.03 5755796.50 -29.30 0.00 1.00 1.00 0.00 0.00 0.00 0.00 0.00 0.00 0.00 0.00 0.00 0.00 0.00 191.00 140.00 151.00 
401935.88 5755798.00 -27.39 0.00 1.00 1.00 0.00 0.00 0.00 0.00 0.00 0.00 0.00 0.00 0.00 0.00 0.00 181.00 129.00 146.00 
401939.69 5755801.00 -26.37 0.00 1.00 1.00 0.00 0.00 0.00 0.00 0.00 0.00 0.00 0.00 0.00 0.00 0.00 186.00 129.00 149.00 
401940.88 5755802.00 -26.42 0.00 1.00 1.00 0.00 0.00 0.00 0.00 0.00 0.00 0.00 0.00 0.00 0.00 0.00 193.00 140.00 153.00 
401941.62 5755802.00 -26.32 0.00 1.00 1.00 0.00 0.00 0.00 0.00 0.00 0.00 0.00 0.00 0.00 0.00 0.00 205.00 148.00 160.00 
401942.59 5755803.00 -25.42 0.00 1.00 1.00 0.00 0.00 0.00 0.00 0.00 0.00 0.00 0.00 0.00 0.00 0.00 186.00 136.00 141.00 
401909.91 5755780.00 -36.31 0.00 1.00 1.00 0.00 0.00 0.00 0.00 0.00 0.00 0.00 0.00 0.00 0.00 0.00 163.00 114.00 128.00 
401912.56 5755781.50 -35.67 0.00 1.00 1.00 0.00 0.00 0.00 0.00 0.00 0.00 0.00 0.00 0.00 0.00 0.00 154.00 110.00 124.00 
401912.75 5755781.50 -35.16 0.00 1.00 1.00 0.00 0.00 0.00 0.00 0.00 0.00 0.00 0.00 0.00 0.00 0.00 168.00 125.00 130.00 
401915.75 5755783.50 -34.08 0.00 1.00 1.00 0.00 0.00 0.00 0.00 0.00 0.00 0.00 0.00 0.00 0.00 0.00 162.00 114.00 137.00 
401918.66 5755785.50 -33.21 0.00 1.00 1.00 0.00 0.00 0.00 0.00 0.00 0.00 0.00 0.00 0.00 0.00 0.00 184.00 132.00 155.00 
401920.69 5755788.50 -32.38 0.00 1.00 1.00 0.00 0.00 0.00 0.00 0.00 0.00 0.00 0.00 0.00 0.00 0.00 168.00 119.00 144.00 
401922.44 5755788.50 -32.25 0.00 1.00 1.00 0.00 0.00 0.00 0.00 0.00 0.00 0.00 0.00 0.00 0.00 0.00 170.00 119.00 143.00 
401923.38 5755789.50 -31.38 0.00 1.00 1.00 0.00 0.00 0.00 0.00 0.00 0.00 0.00 0.00 0.00 0.00 0.00 164.00 116.00 137.00 
401925.34 5755790.50 -31.21 0.00 1.00 1.00 0.00 0.00 0.00 0.00 0.00 0.00 0.00 0.00 0.00 0.00 0.00 165.00 113.00 140.00 
401932.03 5755795.00 -29.17 0.00 1.00 1.00 0.00 0.00 0.00 0.00 0.00 0.00 0.00 0.00 0.00 0.00 0.00 171.00 126.00 133.00 
401933.09 5755796.00 -28.29 0.00 1.00 1.00 0.00 0.00 0.00 0.00 0.00 0.00 0.00 0.00 0.00 0.00 0.00 187.00 136.00 152.00 
401935.00 5755797.00 -28.35 0.00 1.00 1.00 0.00 0.00 0.00 0.00 0.00 0.00 0.00 0.00 0.00 0.00 0.00 191.00 134.00 157.00 
401937.75 5755799.00 -27.20 0.00 1.00 1.00 0.00 0.00 0.00 0.00 0.00 0.00 0.00 0.00 0.00 0.00 0.00 194.00 144.00 157.00 
401938.81 5755800.00 -26.49 0.00 1.00 1.00 0.00 0.00 0.00 0.00 0.00 0.00 0.00 0.00 0.00 0.00 0.00 199.00 144.00 163.00 
401940.62 5755801.00 -25.76 0.00 1.00 1.00 0.00 0.00 0.00 0.00 0.00 0.00 0.00 0.00 0.00 0.00 0.00 194.00 138.00 158.00 
401910.84 5755780.00 -36.03 0.00 1.00 1.00 0.00 0.00 0.00 0.00 0.00 0.00 0.00 0.00 0.00 0.00 0.00 162.00 116.00 121.00 
401911.91 5755781.00 -36.02 0.00 1.00 1.00 0.00 0.00 0.00 0.00 0.00 0.00 0.00 0.00 0.00 0.00 0.00 141.00 93.00 105.00 
401913.84 5755782.00 -35.13 0.00 1.00 1.00 0.00 0.00 0.00 0.00 0.00 0.00 0.00 0.00 0.00 0.00 0.00 177.00 129.00 146.00 
401914.66 5755782.50 -34.84 0.00 1.00 1.00 0.00 0.00 0.00 0.00 0.00 0.00 0.00 0.00 0.00 0.00 0.00 178.00 128.00 148.00 
401917.62 5755784.50 -33.15 0.00 1.00 1.00 0.00 0.00 0.00 0.00 0.00 0.00 0.00 0.00 0.00 0.00 0.00 180.00 131.00 147.00 
401920.38 5755786.50 -33.16 0.00 1.00 1.00 0.00 0.00 0.00 0.00 0.00 0.00 0.00 0.00 0.00 0.00 0.00 162.00 115.00 133.00 
401920.47 5755787.50 -32.33 0.00 1.00 1.00 0.00 0.00 0.00 0.00 0.00 0.00 0.00 0.00 0.00 0.00 0.00 158.00 109.00 134.00 
401921.56 5755787.50 -32.33 0.00 1.00 1.00 0.00 0.00 0.00 0.00 0.00 0.00 0.00 0.00 0.00 0.00 0.00 164.00 114.00 139.00 
401924.44 5755789.50 -31.32 0.00 1.00 1.00 0.00 0.00 0.00 0.00 0.00 0.00 0.00 0.00 0.00 0.00 0.00 181.00 134.00 148.00 
401927.19 5755791.50 -31.12 0.00 1.00 1.00 0.00 0.00 0.00 0.00 0.00 0.00 0.00 0.00 0.00 0.00 0.00 157.00 101.00 112.00 
401928.16 5755792.50 -30.31 0.00 1.00 1.00 0.00 0.00 0.00 0.00 0.00 0.00 0.00 0.00 0.00 0.00 0.00 174.00 122.00 144.00 
401931.12 5755794.00 -30.01 0.00 1.00 1.00 0.00 0.00 0.00 0.00 0.00 0.00 0.00 0.00 0.00 0.00 0.00 180.00 125.00 128.00 
401932.03 5755796.00 -28.59 0.00 1.00 1.00 0.00 0.00 0.00 0.00 0.00 0.00 0.00 0.00 0.00 0.00 0.00 182.00 132.00 153.00 
401934.03 5755796.00 -28.32 0.00 1.00 1.00 0.00 0.00 0.00 0.00 0.00 0.00 0.00 0.00 0.00 0.00 0.00 175.00 124.00 134.00 
401935.62 5755798.00 -28.34 0.00 1.00 1.00 0.00 0.00 0.00 0.00 0.00 0.00 0.00 0.00 0.00 0.00 0.00 189.00 137.00 154.00 
401936.91 5755798.00 -27.38 0.00 1.00 1.00 0.00 0.00 0.00 0.00 0.00 0.00 0.00 0.00 0.00 0.00 0.00 191.00 139.00 157.00 
401939.78 5755800.00 -26.41 0.00 1.00 1.00 0.00 0.00 0.00 0.00 0.00 0.00 0.00 0.00 0.00 0.00 0.00 178.00 131.00 129.00 
401940.03 5755801.00 -25.91 0.00 1.00 1.00 0.00 0.00 0.00 0.00 0.00 0.00 0.00 0.00 0.00 0.00 0.00 193.00 137.00 155.00 
401940.72 5755801.00 -26.33 0.00 1.00 1.00 0.00 0.00 0.00 0.00 0.00 0.00 0.00 0.00 0.00 0.00 0.00 182.00 133.00 141.00 
401941.72 5755802.00 -25.63 0.00 1.00 1.00 0.00 0.00 0.00 0.00 0.00 0.00 0.00 0.00 0.00 0.00 0.00 186.00 134.00 145.00 
401943.44 5755803.00 -25.57 0.00 1.00 1.00 0.00 0.00 0.00 0.00 0.00 0.00 0.00 0.00 0.00 0.00 0.00 181.00 130.00 138.00 
401912.44 5755781.00 -35.75 0.00 1.00 1.00 0.00 0.00 0.00 0.00 0.00 0.00 0.00 0.00 0.00 0.00 0.00 170.00 122.00 130.00 
401914.88 5755782.50 -34.18 0.00 1.00 1.00 0.00 0.00 0.00 0.00 0.00 0.00 0.00 0.00 0.00 0.00 0.00 181.00 135.00 145.00 
401916.72 5755783.50 -33.94 0.00 1.00 1.00 0.00 0.00 0.00 0.00 0.00 0.00 0.00 0.00 0.00 0.00 0.00 167.00 116.00 140.00 
401919.62 5755785.50 -33.00 0.00 1.00 1.00 0.00 0.00 0.00 0.00 0.00 0.00 0.00 0.00 0.00 0.00 0.00 184.00 132.00 156.00 
401920.53 5755786.50 -32.30 0.00 1.00 1.00 0.00 0.00 0.00 0.00 0.00 0.00 0.00 0.00 0.00 0.00 0.00 174.00 125.00 144.00 
401923.47 5755788.50 -32.19 0.00 1.00 1.00 0.00 0.00 0.00 0.00 0.00 0.00 0.00 0.00 0.00 0.00 0.00 180.00 134.00 146.00 
401924.19 5755789.50 -32.01 0.00 1.00 1.00 0.00 0.00 0.00 0.00 0.00 0.00 0.00 0.00 0.00 0.00 0.00 176.00 131.00 143.00 
401925.28 5755789.50 -31.26 0.00 1.00 1.00 0.00 0.00 0.00 0.00 0.00 0.00 0.00 0.00 0.00 0.00 0.00 179.00 130.00 148.00 
401926.25 5755790.50 -31.28 0.00 1.00 1.00 0.00 0.00 0.00 0.00 0.00 0.00 0.00 0.00 0.00 0.00 0.00 167.00 113.00 140.00 
401927.19 5755791.50 -30.36 0.00 1.00 1.00 0.00 0.00 0.00 0.00 0.00 0.00 0.00 0.00 0.00 0.00 0.00 127.00 61.00 100.00 
401930.09 5755793.00 -30.07 0.00 1.00 1.00 0.00 0.00 0.00 0.00 0.00 0.00 0.00 0.00 0.00 0.00 0.00 182.00 130.00 145.00 
401931.09 5755794.50 -29.40 0.00 1.00 1.00 0.00 0.00 0.00 0.00 0.00 0.00 0.00 0.00 0.00 0.00 0.00 188.00 131.00 134.00 
401932.00 5755794.50 -29.34 0.00 1.00 1.00 0.00 0.00 0.00 0.00 0.00 0.00 0.00 0.00 0.00 0.00 0.00 170.00 119.00 132.00 
401932.97 5755795.00 -28.44 0.00 1.00 1.00 0.00 0.00 0.00 0.00 0.00 0.00 0.00 0.00 0.00 0.00 0.00 188.00 135.00 154.00 
401935.88 5755797.00 -28.16 0.00 1.00 1.00 0.00 0.00 0.00 0.00 0.00 0.00 0.00 0.00 0.00 0.00 0.00 183.00 132.00 143.00 
401938.09 5755799.00 -26.58 0.00 1.00 1.00 0.00 0.00 0.00 0.00 0.00 0.00 0.00 0.00 0.00 0.00 0.00 195.00 140.00 163.00 
401938.78 5755799.00 -26.56 0.00 1.00 1.00 0.00 0.00 0.00 0.00 0.00 0.00 0.00 0.00 0.00 0.00 0.00 194.00 139.00 159.00 
401942.62 5755802.00 -25.47 0.00 1.00 1.00 0.00 0.00 0.00 0.00 0.00 0.00 0.00 0.00 0.00 0.00 0.00 186.00 131.00 147.00 
401911.84 5755780.00 -36.00 0.00 1.00 1.00 0.00 0.00 0.00 0.00 0.00 0.00 0.00 0.00 0.00 0.00 0.00 157.00 107.00 117.00 
401912.69 5755781.00 -35.12 0.00 1.00 1.00 0.00 0.00 0.00 0.00 0.00 0.00 0.00 0.00 0.00 0.00 0.00 170.00 124.00 124.00 
401914.69 5755782.00 -34.81 0.00 1.00 1.00 0.00 0.00 0.00 0.00 0.00 0.00 0.00 0.00 0.00 0.00 0.00 179.00 132.00 145.00 
401915.78 5755782.50 -34.13 0.00 1.00 1.00 0.00 0.00 0.00 0.00 0.00 0.00 0.00 0.00 0.00 0.00 0.00 165.00 117.00 137.00 
401917.28 5755784.50 -33.71 0.00 1.00 1.00 0.00 0.00 0.00 0.00 0.00 0.00 0.00 0.00 0.00 0.00 0.00 166.00 116.00 141.00 
401918.59 5755784.50 -33.15 0.00 1.00 1.00 0.00 0.00 0.00 0.00 0.00 0.00 0.00 0.00 0.00 0.00 0.00 181.00 132.00 149.00 
401919.47 5755786.00 -32.60 0.00 1.00 1.00 0.00 0.00 0.00 0.00 0.00 0.00 0.00 0.00 0.00 0.00 0.00 186.00 138.00 155.00 
401919.59 5755786.50 -32.39 0.00 1.00 1.00 0.00 0.00 0.00 0.00 0.00 0.00 0.00 0.00 0.00 0.00 0.00 183.00 136.00 151.00 
401921.50 5755786.50 -32.17 0.00 1.00 1.00 0.00 0.00 0.00 0.00 0.00 0.00 0.00 0.00 0.00 0.00 0.00 166.00 120.00 135.00 
401922.47 5755787.50 -32.10 0.00 1.00 1.00 0.00 0.00 0.00 0.00 0.00 0.00 0.00 0.00 0.00 0.00 0.00 173.00 125.00 145.00 
401923.38 5755788.50 -31.32 0.00 1.00 1.00 0.00 0.00 0.00 0.00 0.00 0.00 0.00 0.00 0.00 0.00 0.00 172.00 123.00 144.00 
401924.41 5755788.50 -31.25 0.00 1.00 1.00 0.00 0.00 0.00 0.00 0.00 0.00 0.00 0.00 0.00 0.00 0.00 181.00 135.00 143.00 
401928.19 5755791.50 -30.18 0.00 1.00 1.00 0.00 0.00 0.00 0.00 0.00 0.00 0.00 0.00 0.00 0.00 0.00 185.00 132.00 155.00 
401929.16 5755792.50 -30.19 0.00 1.00 1.00 0.00 0.00 0.00 0.00 0.00 0.00 0.00 0.00 0.00 0.00 0.00 186.00 137.00 153.00 
401931.06 5755793.00 -30.04 0.00 1.00 1.00 0.00 0.00 0.00 0.00 0.00 0.00 0.00 0.00 0.00 0.00 0.00 184.00 132.00 134.00 
401931.88 5755794.00 -30.03 0.00 1.00 1.00 0.00 0.00 0.00 0.00 0.00 0.00 0.00 0.00 0.00 0.00 0.00 169.00 117.00 131.00 
401932.12 5755795.50 -28.61 0.00 1.00 1.00 0.00 0.00 0.00 0.00 0.00 0.00 0.00 0.00 0.00 0.00 0.00 181.00 130.00 149.00 
401935.00 5755796.00 -28.35 0.00 1.00 1.00 0.00 0.00 0.00 0.00 0.00 0.00 0.00 0.00 0.00 0.00 0.00 179.00 126.00 149.00 
401935.88 5755797.00 -27.55 0.00 1.00 1.00 0.00 0.00 0.00 0.00 0.00 0.00 0.00 0.00 0.00 0.00 0.00 176.00 121.00 146.00 
401937.69 5755798.00 -27.23 0.00 1.00 1.00 0.00 0.00 0.00 0.00 0.00 0.00 0.00 0.00 0.00 0.00 0.00 194.00 143.00 155.00 
401941.75 5755801.00 -26.35 0.00 1.00 1.00 0.00 0.00 0.00 0.00 0.00 0.00 0.00 0.00 0.00 0.00 0.00 185.00 136.00 139.00 
401943.72 5755802.00 -25.33 0.00 1.00 1.00 0.00 0.00 0.00 0.00 0.00 0.00 0.00 0.00 0.00 0.00 0.00 184.00 135.00 139.00 
401914.81 5755782.00 -34.24 0.00 1.00 1.00 0.00 0.00 0.00 0.00 0.00 0.00 0.00 0.00 0.00 0.00 0.00 178.00 130.00 144.00 
401917.34 5755783.50 -33.88 0.00 1.00 1.00 0.00 0.00 0.00 0.00 0.00 0.00 0.00 0.00 0.00 0.00 0.00 180.00 132.00 149.00 
401917.62 5755783.50 -33.29 0.00 1.00 1.00 0.00 0.00 0.00 0.00 0.00 0.00 0.00 0.00 0.00 0.00 0.00 181.00 134.00 146.00 
401920.47 5755785.50 -32.15 0.00 1.00 1.00 0.00 0.00 0.00 0.00 0.00 0.00 0.00 0.00 0.00 0.00 0.00 166.00 120.00 135.00 
401920.44 5755785.50 -32.94 0.00 1.00 1.00 0.00 0.00 0.00 0.00 0.00 0.00 0.00 0.00 0.00 0.00 0.00 175.00 130.00 140.00 
401923.56 5755787.50 -32.01 0.00 1.00 1.00 0.00 0.00 0.00 0.00 0.00 0.00 0.00 0.00 0.00 0.00 0.00 174.00 126.00 143.00 
401926.41 5755789.50 -31.28 0.00 1.00 1.00 0.00 0.00 0.00 0.00 0.00 0.00 0.00 0.00 0.00 0.00 0.00 186.00 136.00 157.00 
401927.12 5755790.50 -31.27 0.00 1.00 1.00 0.00 0.00 0.00 0.00 0.00 0.00 0.00 0.00 0.00 0.00 0.00 138.00 85.00 92.00 
401930.09 5755792.50 -29.24 0.00 1.00 1.00 0.00 0.00 0.00 0.00 0.00 0.00 0.00 0.00 0.00 0.00 0.00 164.00 111.00 137.00 
401931.16 5755793.00 -29.43 0.00 1.00 1.00 0.00 0.00 0.00 0.00 0.00 0.00 0.00 0.00 0.00 0.00 0.00 192.00 136.00 144.00 
401934.00 5755795.50 -28.44 0.00 1.00 1.00 0.00 0.00 0.00 0.00 0.00 0.00 0.00 0.00 0.00 0.00 0.00 162.00 109.00 131.00 
401936.91 5755797.00 -27.39 0.00 1.00 1.00 0.00 0.00 0.00 0.00 0.00 0.00 0.00 0.00 0.00 0.00 0.00 179.00 129.00 140.00 
401939.72 5755799.00 -26.41 0.00 1.00 1.00 0.00 0.00 0.00 0.00 0.00 0.00 0.00 0.00 0.00 0.00 0.00 182.00 127.00 146.00 
401940.81 5755800.00 -26.34 0.00 1.00 1.00 0.00 0.00 0.00 0.00 0.00 0.00 0.00 0.00 0.00 0.00 0.00 196.00 143.00 145.00 
401940.75 5755800.00 -25.77 0.00 1.00 1.00 0.00 0.00 0.00 0.00 0.00 0.00 0.00 0.00 0.00 0.00 0.00 186.00 130.00 147.00 
401942.66 5755801.00 -25.56 0.00 1.00 1.00 0.00 0.00 0.00 0.00 0.00 0.00 0.00 0.00 0.00 0.00 0.00 178.00 122.00 135.00 
401911.00 5755779.00 -36.01 0.00 1.00 1.00 0.00 0.00 0.00 0.00 0.00 0.00 0.00 0.00 0.00 0.00 0.00 152.00 108.00 126.00 
401912.66 5755779.50 -35.64 0.00 1.00 1.00 0.00 0.00 0.00 0.00 0.00 0.00 0.00 0.00 0.00 0.00 0.00 169.00 125.00 134.00 
401913.72 5755780.50 -35.03 0.00 1.00 1.00 0.00 0.00 0.00 0.00 0.00 0.00 0.00 0.00 0.00 0.00 0.00 176.00 130.00 140.00 
401915.75 5755782.00 -34.20 0.00 1.00 1.00 0.00 0.00 0.00 0.00 0.00 0.00 0.00 0.00 0.00 0.00 0.00 177.00 127.00 147.00 
401916.62 5755783.00 -34.02 0.00 1.00 1.00 0.00 0.00 0.00 0.00 0.00 0.00 0.00 0.00 0.00 0.00 0.00 178.00 129.00 147.00 
401919.59 5755784.50 -33.22 0.00 1.00 1.00 0.00 0.00 0.00 0.00 0.00 0.00 0.00 0.00 0.00 0.00 0.00 178.00 132.00 144.00 
401922.41 5755786.50 -32.17 0.00 1.00 1.00 0.00 0.00 0.00 0.00 0.00 0.00 0.00 0.00 0.00 0.00 0.00 176.00 130.00 141.00 
401923.38 5755787.50 -31.20 0.00 1.00 1.00 0.00 0.00 0.00 0.00 0.00 0.00 0.00 0.00 0.00 0.00 0.00 166.00 119.00 139.00 
401929.19 5755791.50 -30.16 0.00 1.00 1.00 0.00 0.00 0.00 0.00 0.00 0.00 0.00 0.00 0.00 0.00 0.00 185.00 134.00 148.00 
401930.28 5755792.50 -29.95 0.00 1.00 1.00 0.00 0.00 0.00 0.00 0.00 0.00 0.00 0.00 0.00 0.00 0.00 171.00 116.00 141.00 
401932.12 5755793.50 -29.26 0.00 1.00 1.00 0.00 0.00 0.00 0.00 0.00 0.00 0.00 0.00 0.00 0.00 0.00 144.00 90.00 120.00 
401933.06 5755794.50 -28.50 0.00 1.00 1.00 0.00 0.00 0.00 0.00 0.00 0.00 0.00 0.00 0.00 0.00 0.00 189.00 139.00 147.00 
401935.88 5755796.00 -28.32 0.00 1.00 1.00 0.00 0.00 0.00 0.00 0.00 0.00 0.00 0.00 0.00 0.00 0.00 165.00 110.00 130.00 
401936.06 5755796.50 -27.54 0.00 1.00 1.00 0.00 0.00 0.00 0.00 0.00 0.00 0.00 0.00 0.00 0.00 0.00 163.00 109.00 137.00 
401938.84 5755798.00 -26.37 0.00 1.00 1.00 0.00 0.00 0.00 0.00 0.00 0.00 0.00 0.00 0.00 0.00 0.00 194.00 141.00 159.00 
401941.56 5755800.00 -25.51 0.00 1.00 1.00 0.00 0.00 0.00 0.00 0.00 0.00 0.00 0.00 0.00 0.00 0.00 189.00 133.00 151.00 
401941.78 5755801.00 -25.45 0.00 1.00 1.00 0.00 0.00 0.00 0.00 0.00 0.00 0.00 0.00 0.00 0.00 0.00 184.00 134.00 140.00 
401942.47 5755801.00 -26.34 0.00 1.00 1.00 0.00 0.00 0.00 0.00 0.00 0.00 0.00 0.00 0.00 0.00 0.00 192.00 137.00 136.00 
401912.94 5755780.00 -35.25 0.00 1.00 1.00 0.00 0.00 0.00 0.00 0.00 0.00 0.00 0.00 0.00 0.00 0.00 163.00 118.00 126.00 
401914.72 5755781.00 -34.08 0.00 1.00 1.00 0.00 0.00 0.00 0.00 0.00 0.00 0.00 0.00 0.00 0.00 0.00 176.00 128.00 143.00 
401918.72 5755783.50 -33.19 0.00 1.00 1.00 0.00 0.00 0.00 0.00 0.00 0.00 0.00 0.00 0.00 0.00 0.00 178.00 127.00 148.00 
401921.47 5755785.50 -32.25 0.00 1.00 1.00 0.00 0.00 0.00 0.00 0.00 0.00 0.00 0.00 0.00 0.00 0.00 162.00 118.00 130.00 
401924.53 5755787.50 -31.24 0.00 1.00 1.00 0.00 0.00 0.00 0.00 0.00 0.00 0.00 0.00 0.00 0.00 0.00 170.00 121.00 143.00 
401925.28 5755788.50 -31.24 0.00 1.00 1.00 0.00 0.00 0.00 0.00 0.00 0.00 0.00 0.00 0.00 0.00 0.00 181.00 132.00 148.00 
401927.28 5755790.50 -30.49 0.00 1.00 1.00 0.00 0.00 0.00 0.00 0.00 0.00 0.00 0.00 0.00 0.00 0.00 111.00 48.00 88.00 
401928.22 5755790.50 -30.32 0.00 1.00 1.00 0.00 0.00 0.00 0.00 0.00 0.00 0.00 0.00 0.00 0.00 0.00 181.00 129.00 147.00 
401932.94 5755794.00 -28.92 0.00 1.00 1.00 0.00 0.00 0.00 0.00 0.00 0.00 0.00 0.00 0.00 0.00 0.00 172.00 124.00 133.00 
401934.06 5755794.00 -28.43 0.00 1.00 1.00 0.00 0.00 0.00 0.00 0.00 0.00 0.00 0.00 0.00 0.00 0.00 184.00 126.00 149.00 
401934.94 5755795.00 -28.42 0.00 1.00 1.00 0.00 0.00 0.00 0.00 0.00 0.00 0.00 0.00 0.00 0.00 0.00 182.00 129.00 152.00 
401937.91 5755797.00 -27.23 0.00 1.00 1.00 0.00 0.00 0.00 0.00 0.00 0.00 0.00 0.00 0.00 0.00 0.00 188.00 134.00 158.00 
401940.78 5755799.00 -26.55 0.00 1.00 1.00 0.00 0.00 0.00 0.00 0.00 0.00 0.00 0.00 0.00 0.00 0.00 175.00 126.00 127.00 
401941.75 5755800.00 -26.35 0.00 1.00 1.00 0.00 0.00 0.00 0.00 0.00 0.00 0.00 0.00 0.00 0.00 0.00 189.00 139.00 140.00 
401943.69 5755801.00 -25.52 0.00 1.00 1.00 0.00 0.00 0.00 0.00 0.00 0.00 0.00 0.00 0.00 0.00 0.00 190.00 141.00 145.00 
401911.94 5755779.00 -35.99 0.00 1.00 1.00 0.00 0.00 0.00 0.00 0.00 0.00 0.00 0.00 0.00 0.00 0.00 151.00 102.00 118.00 
401913.81 5755780.00 -35.05 0.00 1.00 1.00 0.00 0.00 0.00 0.00 0.00 0.00 0.00 0.00 0.00 0.00 0.00 159.00 110.00 129.00 
401914.06 5755781.00 -34.39 0.00 1.00 1.00 0.00 0.00 0.00 0.00 0.00 0.00 0.00 0.00 0.00 0.00 0.00 175.00 131.00 137.00 
401917.38 5755782.50 -33.86 0.00 1.00 1.00 0.00 0.00 0.00 0.00 0.00 0.00 0.00 0.00 0.00 0.00 0.00 181.00 133.00 149.00 
401920.62 5755784.50 -32.33 0.00 1.00 1.00 0.00 0.00 0.00 0.00 0.00 0.00 0.00 0.00 0.00 0.00 0.00 182.00 135.00 149.00 
401926.31 5755788.50 -31.18 0.00 1.00 1.00 0.00 0.00 0.00 0.00 0.00 0.00 0.00 0.00 0.00 0.00 0.00 181.00 135.00 147.00 
401927.03 5755789.50 -31.15 0.00 1.00 1.00 0.00 0.00 0.00 0.00 0.00 0.00 0.00 0.00 0.00 0.00 0.00 153.00 107.00 122.00 
401927.19 5755789.50 -30.25 0.00 1.00 1.00 0.00 0.00 0.00 0.00 0.00 0.00 0.00 0.00 0.00 0.00 0.00 163.00 113.00 135.00 
401929.88 5755791.50 -30.28 0.00 1.00 1.00 0.00 0.00 0.00 0.00 0.00 0.00 0.00 0.00 0.00 0.00 0.00 180.00 129.00 146.00 
401931.12 5755792.00 -29.92 0.00 1.00 1.00 0.00 0.00 0.00 0.00 0.00 0.00 0.00 0.00 0.00 0.00 0.00 181.00 125.00 150.00 
401931.06 5755792.00 -29.39 0.00 1.00 1.00 0.00 0.00 0.00 0.00 0.00 0.00 0.00 0.00 0.00 0.00 0.00 160.00 113.00 129.00 
401936.94 5755796.00 -27.38 0.00 1.00 1.00 0.00 0.00 0.00 0.00 0.00 0.00 0.00 0.00 0.00 0.00 0.00 177.00 126.00 141.00 
401939.72 5755798.00 -26.43 0.00 1.00 1.00 0.00 0.00 0.00 0.00 0.00 0.00 0.00 0.00 0.00 0.00 0.00 186.00 129.00 150.00 
401912.88 5755779.00 -35.69 0.00 1.00 1.00 0.00 0.00 0.00 0.00 0.00 0.00 0.00 0.00 0.00 0.00 0.00 175.00 128.00 138.00 
401914.53 5755780.50 -34.63 0.00 1.00 1.00 0.00 0.00 0.00 0.00 0.00 0.00 0.00 0.00 0.00 0.00 0.00 175.00 126.00 142.00 
401916.66 5755782.00 -34.03 0.00 1.00 1.00 0.00 0.00 0.00 0.00 0.00 0.00 0.00 0.00 0.00 0.00 0.00 173.00 125.00 144.00 
401917.59 5755783.00 -33.30 0.00 1.00 1.00 0.00 0.00 0.00 0.00 0.00 0.00 0.00 0.00 0.00 0.00 0.00 182.00 134.00 148.00 
401918.62 5755783.00 -33.26 0.00 1.00 1.00 0.00 0.00 0.00 0.00 0.00 0.00 0.00 0.00 0.00 0.00 0.00 179.00 131.00 147.00 
401919.50 5755783.50 -33.11 0.00 1.00 1.00 0.00 0.00 0.00 0.00 0.00 0.00 0.00 0.00 0.00 0.00 0.00 176.00 133.00 138.00 
401920.44 5755785.00 -32.97 0.00 1.00 1.00 0.00 0.00 0.00 0.00 0.00 0.00 0.00 0.00 0.00 0.00 0.00 174.00 126.00 144.00 
401922.38 5755785.50 -32.29 0.00 1.00 1.00 0.00 0.00 0.00 0.00 0.00 0.00 0.00 0.00 0.00 0.00 0.00 179.00 133.00 142.00 
401923.56 5755786.50 -32.05 0.00 1.00 1.00 0.00 0.00 0.00 0.00 0.00 0.00 0.00 0.00 0.00 0.00 0.00 174.00 126.00 142.00 
401923.41 5755786.50 -31.22 0.00 1.00 1.00 0.00 0.00 0.00 0.00 0.00 0.00 0.00 0.00 0.00 0.00 0.00 181.00 131.00 151.00 
401925.34 5755787.50 -31.17 0.00 1.00 1.00 0.00 0.00 0.00 0.00 0.00 0.00 0.00 0.00 0.00 0.00 0.00 168.00 122.00 136.00 
401929.22 5755790.50 -30.22 0.00 1.00 1.00 0.00 0.00 0.00 0.00 0.00 0.00 0.00 0.00 0.00 0.00 0.00 183.00 129.00 149.00 
401930.25 5755791.50 -29.62 0.00 1.00 1.00 0.00 0.00 0.00 0.00 0.00 0.00 0.00 0.00 0.00 0.00 0.00 174.00 124.00 137.00 
401932.09 5755792.50 -29.28 0.00 1.00 1.00 0.00 0.00 0.00 0.00 0.00 0.00 0.00 0.00 0.00 0.00 0.00 179.00 125.00 144.00 
401933.06 5755793.00 -29.20 0.00 1.00 1.00 0.00 0.00 0.00 0.00 0.00 0.00 0.00 0.00 0.00 0.00 0.00 178.00 127.00 145.00 
401934.88 5755794.50 -28.34 0.00 1.00 1.00 0.00 0.00 0.00 0.00 0.00 0.00 0.00 0.00 0.00 0.00 0.00 163.00 111.00 131.00 
401935.91 5755795.00 -28.21 0.00 1.00 1.00 0.00 0.00 0.00 0.00 0.00 0.00 0.00 0.00 0.00 0.00 0.00 186.00 131.00 155.00 
401936.06 5755795.50 -27.52 0.00 1.00 1.00 0.00 0.00 0.00 0.00 0.00 0.00 0.00 0.00 0.00 0.00 0.00 168.00 113.00 143.00 
401938.88 5755797.00 -26.51 0.00 1.00 1.00 0.00 0.00 0.00 0.00 0.00 0.00 0.00 0.00 0.00 0.00 0.00 197.00 144.00 160.00 
401941.81 5755799.00 -26.28 0.00 1.00 1.00 0.00 0.00 0.00 0.00 0.00 0.00 0.00 0.00 0.00 0.00 0.00 187.00 135.00 137.00 
401942.59 5755800.00 -25.45 0.00 1.00 1.00 0.00 0.00 0.00 0.00 0.00 0.00 0.00 0.00 0.00 0.00 0.00 181.00 131.00 137.00 
401911.88 5755778.00 -35.97 0.00 1.00 1.00 0.00 0.00 0.00 0.00 0.00 0.00 0.00 0.00 0.00 0.00 0.00 169.00 122.00 138.00 
401912.72 5755779.00 -35.31 0.00 1.00 1.00 0.00 0.00 0.00 0.00 0.00 0.00 0.00 0.00 0.00 0.00 0.00 167.00 117.00 132.00 
401914.56 5755780.00 -34.80 0.00 1.00 1.00 0.00 0.00 0.00 0.00 0.00 0.00 0.00 0.00 0.00 0.00 0.00 179.00 131.00 146.00 
401915.75 5755781.00 -34.22 0.00 1.00 1.00 0.00 0.00 0.00 0.00 0.00 0.00 0.00 0.00 0.00 0.00 0.00 179.00 132.00 147.00 
401917.47 5755782.00 -33.85 0.00 1.00 1.00 0.00 0.00 0.00 0.00 0.00 0.00 0.00 0.00 0.00 0.00 0.00 178.00 131.00 146.00 
401921.47 5755784.50 -32.11 0.00 1.00 1.00 0.00 0.00 0.00 0.00 0.00 0.00 0.00 0.00 0.00 0.00 0.00 181.00 132.00 152.00 
401922.72 5755785.50 -31.26 0.00 1.00 1.00 0.00 0.00 0.00 0.00 0.00 0.00 0.00 0.00 0.00 0.00 0.00 182.00 134.00 150.00 
401924.38 5755786.50 -31.29 0.00 1.00 1.00 0.00 0.00 0.00 0.00 0.00 0.00 0.00 0.00 0.00 0.00 0.00 165.00 118.00 136.00 
401928.28 5755789.50 -30.30 0.00 1.00 1.00 0.00 0.00 0.00 0.00 0.00 0.00 0.00 0.00 0.00 0.00 0.00 182.00 131.00 148.00 
401931.12 5755791.50 -29.37 0.00 1.00 1.00 0.00 0.00 0.00 0.00 0.00 0.00 0.00 0.00 0.00 0.00 0.00 185.00 131.00 149.00 
401930.88 5755791.00 -29.98 0.00 1.00 1.00 0.00 0.00 0.00 0.00 0.00 0.00 0.00 0.00 0.00 0.00 0.00 180.00 123.00 149.00 
401933.06 5755793.50 -28.55 0.00 1.00 1.00 0.00 0.00 0.00 0.00 0.00 0.00 0.00 0.00 0.00 0.00 0.00 183.00 132.00 145.00 
401934.09 5755793.50 -28.42 0.00 1.00 1.00 0.00 0.00 0.00 0.00 0.00 0.00 0.00 0.00 0.00 0.00 0.00 191.00 134.00 153.00 
401937.81 5755796.00 -27.30 0.00 1.00 1.00 0.00 0.00 0.00 0.00 0.00 0.00 0.00 0.00 0.00 0.00 0.00 193.00 141.00 148.00 
401940.75 5755798.00 -26.45 0.00 1.00 1.00 0.00 0.00 0.00 0.00 0.00 0.00 0.00 0.00 0.00 0.00 0.00 210.00 151.00 155.00 
401941.69 5755799.00 -25.49 0.00 1.00 1.00 0.00 0.00 0.00 0.00 0.00 0.00 0.00 0.00 0.00 0.00 0.00 202.00 143.00 154.00 
401943.69 5755800.00 -25.49 0.00 1.00 1.00 0.00 0.00 0.00 0.00 0.00 0.00 0.00 0.00 0.00 0.00 0.00 181.00 131.00 134.00 
401944.53 5755801.00 -25.26 0.00 1.00 1.00 0.00 0.00 0.00 0.00 0.00 0.00 0.00 0.00 0.00 0.00 0.00 179.00 131.00 134.00 
401913.75 5755779.00 -35.07 0.00 1.00 1.00 0.00 0.00 0.00 0.00 0.00 0.00 0.00 0.00 0.00 0.00 0.00 172.00 126.00 137.00 
401914.72 5755780.00 -34.24 0.00 1.00 1.00 0.00 0.00 0.00 0.00 0.00 0.00 0.00 0.00 0.00 0.00 0.00 178.00 132.00 142.00 
401916.72 5755781.00 -34.01 0.00 1.00 1.00 0.00 0.00 0.00 0.00 0.00 0.00 0.00 0.00 0.00 0.00 0.00 181.00 133.00 148.00 
401920.56 5755783.50 -33.06 0.00 1.00 1.00 0.00 0.00 0.00 0.00 0.00 0.00 0.00 0.00 0.00 0.00 0.00 175.00 126.00 144.00 
401923.44 5755785.50 -31.27 0.00 1.00 1.00 0.00 0.00 0.00 0.00 0.00 0.00 0.00 0.00 0.00 0.00 0.00 179.00 133.00 143.00 
401926.38 5755787.50 -31.07 0.00 1.00 1.00 0.00 0.00 0.00 0.00 0.00 0.00 0.00 0.00 0.00 0.00 0.00 185.00 138.00 149.00 
401927.16 5755788.50 -30.33 0.00 1.00 1.00 0.00 0.00 0.00 0.00 0.00 0.00 0.00 0.00 0.00 0.00 0.00 186.00 137.00 154.00 
401930.03 5755790.50 -30.12 0.00 1.00 1.00 0.00 0.00 0.00 0.00 0.00 0.00 0.00 0.00 0.00 0.00 0.00 166.00 114.00 139.00 
401933.06 5755792.50 -29.17 0.00 1.00 1.00 0.00 0.00 0.00 0.00 0.00 0.00 0.00 0.00 0.00 0.00 0.00 181.00 128.00 149.00 
401935.94 5755794.00 -28.29 0.00 1.00 1.00 0.00 0.00 0.00 0.00 0.00 0.00 0.00 0.00 0.00 0.00 0.00 191.00 134.00 158.00 
401936.91 5755795.50 -27.52 0.00 1.00 1.00 0.00 0.00 0.00 0.00 0.00 0.00 0.00 0.00 0.00 0.00 0.00 191.00 136.00 157.00 
401939.69 5755797.00 -26.44 0.00 1.00 1.00 0.00 0.00 0.00 0.00 0.00 0.00 0.00 0.00 0.00 0.00 0.00 199.00 143.00 162.00 
401942.53 5755799.00 -25.42 0.00 1.00 1.00 0.00 0.00 0.00 0.00 0.00 0.00 0.00 0.00 0.00 0.00 0.00 202.00 142.00 162.00 
401912.94 5755778.00 -35.41 0.00 1.00 1.00 0.00 0.00 0.00 0.00 0.00 0.00 0.00 0.00 0.00 0.00 0.00 154.00 104.00 123.00 
401912.78 5755778.00 -35.72 0.00 1.00 1.00 0.00 0.00 0.00 0.00 0.00 0.00 0.00 0.00 0.00 0.00 0.00 166.00 120.00 124.00 
401915.81 5755780.00 -34.24 0.00 1.00 1.00 0.00 0.00 0.00 0.00 0.00 0.00 0.00 0.00 0.00 0.00 0.00 181.00 130.00 151.00 
401917.66 5755782.00 -33.20 0.00 1.00 1.00 0.00 0.00 0.00 0.00 0.00 0.00 0.00 0.00 0.00 0.00 0.00 178.00 132.00 145.00 
401919.41 5755782.50 -33.05 0.00 1.00 1.00 0.00 0.00 0.00 0.00 0.00 0.00 0.00 0.00 0.00 0.00 0.00 180.00 132.00 148.00 
401920.53 5755784.00 -32.35 0.00 1.00 1.00 0.00 0.00 0.00 0.00 0.00 0.00 0.00 0.00 0.00 0.00 0.00 180.00 131.00 149.00 
401921.47 5755783.50 -32.18 0.00 1.00 1.00 0.00 0.00 0.00 0.00 0.00 0.00 0.00 0.00 0.00 0.00 0.00 168.00 122.00 136.00 
401922.53 5755784.50 -32.18 0.00 1.00 1.00 0.00 0.00 0.00 0.00 0.00 0.00 0.00 0.00 0.00 0.00 0.00 182.00 132.00 152.00 
401927.12 5755788.50 -30.92 0.00 1.00 1.00 0.00 0.00 0.00 0.00 0.00 0.00 0.00 0.00 0.00 0.00 0.00 182.00 135.00 148.00 
401928.16 5755788.50 -30.23 0.00 1.00 1.00 0.00 0.00 0.00 0.00 0.00 0.00 0.00 0.00 0.00 0.00 0.00 191.00 139.00 158.00 
401929.22 5755789.50 -30.27 0.00 1.00 1.00 0.00 0.00 0.00 0.00 0.00 0.00 0.00 0.00 0.00 0.00 0.00 192.00 138.00 152.00 
401930.16 5755790.50 -29.68 0.00 1.00 1.00 0.00 0.00 0.00 0.00 0.00 0.00 0.00 0.00 0.00 0.00 0.00 182.00 128.00 148.00 
401932.06 5755791.50 -29.37 0.00 1.00 1.00 0.00 0.00 0.00 0.00 0.00 0.00 0.00 0.00 0.00 0.00 0.00 177.00 119.00 144.00 
401934.91 5755793.50 -28.34 0.00 1.00 1.00 0.00 0.00 0.00 0.00 0.00 0.00 0.00 0.00 0.00 0.00 0.00 170.00 118.00 127.00 
401937.84 5755795.00 -27.40 0.00 1.00 1.00 0.00 0.00 0.00 0.00 0.00 0.00 0.00 0.00 0.00 0.00 0.00 191.00 132.00 149.00 
401941.66 5755798.00 -26.35 0.00 1.00 1.00 0.00 0.00 0.00 0.00 0.00 0.00 0.00 0.00 0.00 0.00 0.00 198.00 144.00 141.00 
401913.41 5755778.50 -35.58 0.00 1.00 1.00 0.00 0.00 0.00 0.00 0.00 0.00 0.00 0.00 0.00 0.00 0.00 171.00 124.00 136.00 
401914.59 5755779.00 -34.82 0.00 1.00 1.00 0.00 0.00 0.00 0.00 0.00 0.00 0.00 0.00 0.00 0.00 0.00 168.00 120.00 138.00 
401918.50 5755782.00 -33.21 0.00 1.00 1.00 0.00 0.00 0.00 0.00 0.00 0.00 0.00 0.00 0.00 0.00 0.00 183.00 135.00 147.00 
401920.62 5755782.50 -32.95 0.00 1.00 1.00 0.00 0.00 0.00 0.00 0.00 0.00 0.00 0.00 0.00 0.00 0.00 180.00 132.00 148.00 
401923.44 5755785.50 -32.09 0.00 1.00 1.00 0.00 0.00 0.00 0.00 0.00 0.00 0.00 0.00 0.00 0.00 0.00 177.00 129.00 145.00 
401924.25 5755785.50 -31.78 0.00 1.00 1.00 0.00 0.00 0.00 0.00 0.00 0.00 0.00 0.00 0.00 0.00 0.00 181.00 132.00 149.00 
401924.34 5755785.50 -31.29 0.00 1.00 1.00 0.00 0.00 0.00 0.00 0.00 0.00 0.00 0.00 0.00 0.00 0.00 191.00 139.00 163.00 
401925.28 5755786.50 -31.23 0.00 1.00 1.00 0.00 0.00 0.00 0.00 0.00 0.00 0.00 0.00 0.00 0.00 0.00 182.00 132.00 151.00 
401926.22 5755788.50 -30.42 0.00 1.00 1.00 0.00 0.00 0.00 0.00 0.00 0.00 0.00 0.00 0.00 0.00 0.00 171.00 124.00 141.00 
401927.28 5755787.50 -30.19 0.00 1.00 1.00 0.00 0.00 0.00 0.00 0.00 0.00 0.00 0.00 0.00 0.00 0.00 193.00 142.00 160.00 
401930.97 5755790.50 -30.02 0.00 1.00 1.00 0.00 0.00 0.00 0.00 0.00 0.00 0.00 0.00 0.00 0.00 0.00 177.00 120.00 145.00 
401931.16 5755790.50 -29.41 0.00 1.00 1.00 0.00 0.00 0.00 0.00 0.00 0.00 0.00 0.00 0.00 0.00 0.00 190.00 133.00 149.00 
401932.94 5755792.50 -28.43 0.00 1.00 1.00 0.00 0.00 0.00 0.00 0.00 0.00 0.00 0.00 0.00 0.00 0.00 182.00 128.00 149.00 
401934.09 5755792.50 -28.42 0.00 1.00 1.00 0.00 0.00 0.00 0.00 0.00 0.00 0.00 0.00 0.00 0.00 0.00 199.00 142.00 157.00 
401938.91 5755796.00 -27.08 0.00 1.00 1.00 0.00 0.00 0.00 0.00 0.00 0.00 0.00 0.00 0.00 0.00 0.00 192.00 138.00 156.00 
401938.66 5755796.00 -26.51 0.00 1.00 1.00 0.00 0.00 0.00 0.00 0.00 0.00 0.00 0.00 0.00 0.00 0.00 184.00 131.00 150.00 
401939.69 5755796.50 -26.46 0.00 1.00 1.00 0.00 0.00 0.00 0.00 0.00 0.00 0.00 0.00 0.00 0.00 0.00 199.00 139.00 158.00 
401940.75 5755797.00 -26.36 0.00 1.00 1.00 0.00 0.00 0.00 0.00 0.00 0.00 0.00 0.00 0.00 0.00 0.00 216.00 154.00 163.00 
401941.38 5755798.50 -25.60 0.00 1.00 1.00 0.00 0.00 0.00 0.00 0.00 0.00 0.00 0.00 0.00 0.00 0.00 203.00 143.00 155.00 
401943.59 5755799.00 -25.43 0.00 1.00 1.00 0.00 0.00 0.00 0.00 0.00 0.00 0.00 0.00 0.00 0.00 0.00 169.00 118.00 120.00 
401944.62 5755800.00 -25.45 0.00 1.00 1.00 0.00 0.00 0.00 0.00 0.00 0.00 0.00 0.00 0.00 0.00 0.00 176.00 125.00 134.00 
401913.75 5755778.00 -35.10 0.00 1.00 1.00 0.00 0.00 0.00 0.00 0.00 0.00 0.00 0.00 0.00 0.00 0.00 175.00 128.00 129.00 
